# .PCD v.7 - Point Cloud Data file format
VERSION .7
FIELDS x y z rgb
SIZE 4 4 4 4
TYPE F F F F
COUNT 1 1 1 1
WIDTH 1138
HEIGHT 1
POINTS 1138
DATA ascii
0.304813 0.092099 -0.387526 6.546253e-39
0.304555 0.091681 -0.385768 6.638448e-39
0.304535 0.091338 -0.384325 6.822840e-39
0.304532 0.091003 -0.382912 6.822840e-39
0.304741 0.090733 -0.381777 6.730644e-39
0.305023 0.090487 -0.380741 6.546253e-39
0.305282 0.090235 -0.379683 6.454057e-39
0.305831 0.090071 -0.378992 6.269666e-39
0.306324 0.089892 -0.378237 5.808688e-39
0.306900 0.089738 -0.377590 5.163318e-39
0.307618 0.089626 -0.377121 4.978927e-39
0.308399 0.089534 -0.376733 4.702340e-39
0.309044 0.089403 -0.376182 4.517949e-39
0.309746 0.089289 -0.375703 4.425753e-39
0.310543 0.089204 -0.375343 4.425753e-39
0.311365 0.089126 -0.375016 4.610144e-39
0.312024 0.089002 -0.374496 4.794536e-39
0.312706 0.088886 -0.374007 4.794536e-39
0.313435 0.088784 -0.373576 4.702340e-39
0.314194 0.088691 -0.373185 4.610144e-39
0.314165 0.088377 -0.371863 4.610144e-39
0.314243 0.088095 -0.370677 4.517949e-39
0.314218 0.087786 -0.369378 4.517949e-39
0.313747 0.087355 -0.367565 4.517949e-39
0.313390 0.086959 -0.365898 4.425753e-39
0.313956 0.086821 -0.365316 4.425753e-39
0.297433 0.080079 -0.336950 4.056971e-39
0.298415 0.080079 -0.336950 4.425757e-39
0.301906 0.076250 -0.320836 7.099429e-39
0.302409 0.076141 -0.320378 7.007234e-39
0.303040 0.076065 -0.320058 7.191625e-39
0.303879 0.076041 -0.319960 7.191625e-39
0.304617 0.075993 -0.319755 7.007234e-39
0.304397 0.075707 -0.318551 7.099429e-39
0.304733 0.075560 -0.317933 7.099429e-39
0.306008 0.075646 -0.318295 7.099429e-39
0.307107 0.075688 -0.318473 7.007235e-39
0.308084 0.075700 -0.318524 6.915041e-39
0.308135 0.075485 -0.317619 7.099431e-39
0.308072 0.075244 -0.316603 7.191626e-39
0.317650 0.100774 -0.429292 3.688541e-39
0.315993 0.099465 -0.423716 4.426106e-39
0.315348 0.098876 -0.421204 4.794890e-39
0.314827 0.098330 -0.418879 4.610858e-39
0.314561 0.097867 -0.416909 4.794890e-39
0.314517 0.097477 -0.415246 5.255514e-39
0.314373 0.097059 -0.413465 5.716491e-39
0.314516 0.096732 -0.412074 6.361861e-39
0.313936 0.096187 -0.409750 6.822840e-39
0.306648 0.092894 -0.395723 6.730644e-39
0.306506 0.092503 -0.394058 6.638448e-39
0.305826 0.091954 -0.391716 6.730644e-39
0.305344 0.091467 -0.389644 6.730644e-39
0.304907 0.090998 -0.387646 6.730644e-39
0.304668 0.090591 -0.385912 6.822840e-39
0.304734 0.090277 -0.384576 6.822840e-39
0.304774 0.089958 -0.383217 6.638448e-39
0.305056 0.089713 -0.382172 6.454057e-39
0.305396 0.089486 -0.381206 6.177470e-39
0.305658 0.089238 -0.380150 5.808688e-39
0.306102 0.089045 -0.379327 5.532101e-39
0.306601 0.088870 -0.378579 5.255514e-39
0.307235 0.088734 -0.378001 4.978927e-39
0.307992 0.088635 -0.377579 4.610144e-39
0.308560 0.088482 -0.376929 4.610144e-39
0.309270 0.088372 -0.376457 4.610144e-39
0.309990 0.088264 -0.376000 4.517949e-39
0.310705 0.088156 -0.375539 4.794536e-39
0.311499 0.088071 -0.375178 4.702340e-39
0.312203 0.087962 -0.374710 4.610144e-39
0.312922 0.087857 -0.374264 4.610144e-39
0.313673 0.087762 -0.373860 4.702340e-39
0.314454 0.087676 -0.373494 4.610144e-39
0.314798 0.087469 -0.372613 4.517949e-39
0.314858 0.087185 -0.371403 4.517949e-39
0.314771 0.086862 -0.370028 4.517949e-39
0.314700 0.086546 -0.368681 4.517949e-39
0.314633 0.086233 -0.367349 4.610144e-39
0.314550 0.085918 -0.366007 4.610144e-39
0.314517 0.085619 -0.364732 4.517949e-39
0.306260 0.074780 -0.318557 7.007236e-39
0.307188 0.074780 -0.318557 7.007235e-39
0.308336 0.074833 -0.318784 7.007235e-39
0.308339 0.074609 -0.317830 7.007235e-39
0.308146 0.074339 -0.316680 7.007235e-39
0.318488 0.100181 -0.432127 5.440257e-39
0.318169 0.099686 -0.429993 5.440260e-39
0.317234 0.099003 -0.427048 5.255870e-39
0.316548 0.098403 -0.424460 5.163315e-39
0.315665 0.097747 -0.421628 4.978926e-39
0.314986 0.097158 -0.419090 5.163676e-39
0.314684 0.096690 -0.417071 5.440264e-39
0.314562 0.096281 -0.415306 5.808689e-39
0.314480 0.095887 -0.413606 6.269307e-39
0.315042 0.095692 -0.412764 6.730285e-39
0.304939 0.090888 -0.392044 6.730645e-39
0.306082 0.090888 -0.392044 6.546254e-39
0.305590 0.090405 -0.389958 6.730645e-39
0.305205 0.089956 -0.388024 6.454058e-39
0.305050 0.089579 -0.386395 6.177470e-39
0.305112 0.089267 -0.385053 5.900883e-39
0.305104 0.088938 -0.383632 5.532101e-39
0.305331 0.088679 -0.382516 5.439905e-39
0.305627 0.088442 -0.381494 5.255514e-39
0.305864 0.088190 -0.380407 4.978927e-39
0.306217 0.087973 -0.379470 4.886731e-39
0.306730 0.087803 -0.378738 4.886731e-39
0.307395 0.087678 -0.378199 4.886731e-39
0.308164 0.087584 -0.377791 4.702340e-39
0.308771 0.087444 -0.377187 4.794536e-39
0.309473 0.087332 -0.376704 4.794536e-39
0.310168 0.087219 -0.376216 4.702340e-39
0.310861 0.087106 -0.375728 4.702340e-39
0.311670 0.087026 -0.375384 4.702340e-39
0.312303 0.086898 -0.374831 4.610144e-39
0.312990 0.086785 -0.374346 4.425753e-39
0.313791 0.086705 -0.374001 4.610144e-39
0.314753 0.086670 -0.373849 4.702340e-39
0.315160 0.086483 -0.373040 4.794536e-39
0.315332 0.086233 -0.371962 4.610144e-39
0.315459 0.085972 -0.370837 4.517949e-39
0.315745 0.085756 -0.369906 4.517949e-39
0.315427 0.085378 -0.368276 4.610144e-39
0.315459 0.085097 -0.367064 4.610143e-39
0.315978 0.084949 -0.366426 4.517949e-39
0.337150 0.087393 -0.376966 6.730647e-39
0.338074 0.087347 -0.376771 6.915038e-39
0.338872 0.087270 -0.376439 7.007234e-39
0.339708 0.087203 -0.376150 7.007236e-39
0.340338 0.087084 -0.375635 7.007236e-39
0.341252 0.087038 -0.375436 7.007235e-39
0.338630 0.086093 -0.371362 7.007235e-39
0.339713 0.086093 -0.371362 7.007235e-39
0.340403 0.085995 -0.370935 7.007236e-39
0.341182 0.085918 -0.370607 7.099431e-39
0.342090 0.085875 -0.370421 7.099431e-39
0.343149 0.085870 -0.370399 7.099431e-39
0.344228 0.085870 -0.370399 7.099432e-39
0.321791 0.101553 -0.443623 2.858782e-39
0.320626 0.100781 -0.440249 3.504151e-39
0.319700 0.099692 -0.435493 5.163670e-39
0.319138 0.099123 -0.433009 4.426103e-39
0.318366 0.098494 -0.430260 5.163673e-39
0.317158 0.097735 -0.426946 5.624652e-39
0.316482 0.097146 -0.424371 5.809044e-39
0.315639 0.096510 -0.421593 6.084916e-39
0.315052 0.095957 -0.419178 6.361861e-39
0.314871 0.095532 -0.417320 6.454057e-39
0.314689 0.095109 -0.415474 6.546251e-39
0.314611 0.094721 -0.413779 6.638447e-39
0.315037 0.094487 -0.412756 6.546610e-39
0.314991 0.094114 -0.411127 6.546610e-39
0.308097 0.091016 -0.397593 6.915391e-39
0.307147 0.090395 -0.394882 6.915391e-39
0.306612 0.089901 -0.392723 6.823554e-39
0.305967 0.089378 -0.390439 6.546966e-39
0.305596 0.088939 -0.388521 6.270019e-39
0.305491 0.088581 -0.386954 5.809041e-39
0.305497 0.088257 -0.385539 5.348063e-39
0.305393 0.087903 -0.383996 4.886731e-39
0.305497 0.087612 -0.382724 4.794536e-39
0.305702 0.087352 -0.381588 4.702340e-39
0.305925 0.087099 -0.380482 4.702340e-39
0.306241 0.086874 -0.379500 4.610144e-39
0.306774 0.086712 -0.378792 4.702340e-39
0.307445 0.086590 -0.378260 4.702340e-39
0.308205 0.086494 -0.377841 4.702340e-39
0.308994 0.086407 -0.377459 4.702340e-39
0.309666 0.086288 -0.376939 4.702340e-39
0.310324 0.086165 -0.376404 4.794536e-39
0.311023 0.086055 -0.375923 4.610144e-39
0.311848 0.085981 -0.375598 4.610144e-39
0.312425 0.085839 -0.374977 4.610144e-39
0.313091 0.085722 -0.374467 4.610144e-39
0.313966 0.085663 -0.374209 4.702340e-39
0.315175 0.085695 -0.374350 4.610144e-39
0.315411 0.085463 -0.373337 4.517949e-39
0.315801 0.085275 -0.372515 4.702340e-39
0.316311 0.085120 -0.371839 4.517949e-39
0.316789 0.084958 -0.371129 4.333556e-39
0.316031 0.084466 -0.368981 4.241363e-39
0.316957 0.084427 -0.368808 4.333558e-39
0.318777 0.084624 -0.369671 4.517947e-39
0.324589 0.085877 -0.375145 4.702340e-39
0.327151 0.086265 -0.376837 5.163321e-39
0.335100 0.086902 -0.379622 6.638452e-39
0.335894 0.086821 -0.379269 6.822842e-39
0.336579 0.086713 -0.378796 6.822842e-39
0.336975 0.086531 -0.378002 6.822842e-39
0.337623 0.086415 -0.377495 6.915038e-39
0.338534 0.086367 -0.377285 6.822842e-39
0.339369 0.086300 -0.376991 6.822844e-39
0.340233 0.086240 -0.376731 7.099432e-39
0.340915 0.086135 -0.376272 7.099432e-39
0.341990 0.086130 -0.376249 7.099431e-39
0.341244 0.085667 -0.374228 7.099431e-39
0.340704 0.085259 -0.372445 7.099431e-39
0.341052 0.085075 -0.371642 7.099431e-39
0.341737 0.084976 -0.371210 7.007235e-39
0.342660 0.084937 -0.371038 7.007235e-39
0.343746 0.084938 -0.371043 7.099431e-39
0.345767 0.085170 -0.372055 7.191628e-39
0.348034 0.085460 -0.373324 7.099431e-39
0.326874 0.102255 -0.452449 4.242074e-39
0.325734 0.101489 -0.449059 4.795252e-39
0.323739 0.100464 -0.444524 4.794892e-39
0.321732 0.099443 -0.440008 4.794892e-39
0.320123 0.098553 -0.436070 4.887089e-39
0.319110 0.097853 -0.432971 5.071479e-39
0.318127 0.097167 -0.429937 5.440620e-39
0.316790 0.096379 -0.426451 5.809402e-39
0.316260 0.095842 -0.424073 6.362216e-39
0.315507 0.095242 -0.421418 6.823554e-39
0.315014 0.094724 -0.419128 6.823194e-39
0.314950 0.094339 -0.417423 6.731000e-39
0.314847 0.093946 -0.415683 6.639164e-39
0.314857 0.093589 -0.414103 6.638804e-39
0.314851 0.093230 -0.412514 6.454414e-39
0.314991 0.092916 -0.411127 6.546609e-39
0.316189 0.092916 -0.411127 6.546610e-39
0.308097 0.089857 -0.397593 6.454414e-39
0.308591 0.089664 -0.396738 6.177829e-39
0.307186 0.088923 -0.393458 5.901242e-39
0.306365 0.088356 -0.390947 5.808688e-39
0.305784 0.087861 -0.388761 5.624296e-39
0.305488 0.087452 -0.386951 5.163318e-39
0.305546 0.087147 -0.385600 4.886731e-39
0.305405 0.086788 -0.384010 5.163318e-39
0.305497 0.086497 -0.382724 4.886731e-39
0.305724 0.086246 -0.381615 4.794536e-39
0.306001 0.086012 -0.380576 4.702340e-39
0.306304 0.085786 -0.379578 4.702340e-39
0.306834 0.085625 -0.378866 4.794536e-39
0.307510 0.085506 -0.378340 4.886731e-39
0.308279 0.085414 -0.377932 4.702340e-39
0.309067 0.085327 -0.377548 4.610144e-39
0.309904 0.085255 -0.377229 4.702340e-39
0.310566 0.085135 -0.376699 4.794536e-39
0.311108 0.084983 -0.376026 4.610144e-39
0.311944 0.084913 -0.375714 4.610144e-39
0.312704 0.084822 -0.375312 4.702340e-39
0.313498 0.084741 -0.374953 4.702340e-39
0.314432 0.084698 -0.374764 4.702340e-39
0.315690 0.084743 -0.374962 4.517949e-39
0.316061 0.084550 -0.374108 4.333556e-39
0.316589 0.084400 -0.373444 4.425750e-39
0.317264 0.084290 -0.372958 4.333558e-39
0.317977 0.084191 -0.372521 4.149170e-39
0.317732 0.083840 -0.370967 3.964779e-39
0.318831 0.083845 -0.370988 4.241365e-39
0.321167 0.084174 -0.372443 4.702343e-39
0.324589 0.084784 -0.375145 5.347712e-39
0.327151 0.085166 -0.376837 5.993082e-39
0.329050 0.085374 -0.377756 6.361864e-39
0.330503 0.085465 -0.378159 6.638451e-39
0.331797 0.085515 -0.378378 6.915038e-39
0.334007 0.085799 -0.379637 7.007234e-39
0.335100 0.085796 -0.379622 7.007234e-39
0.335894 0.085716 -0.379269 7.191625e-39
0.336579 0.085609 -0.378796 7.007234e-39
0.336975 0.085430 -0.378002 6.822842e-39
0.338902 0.085639 -0.378925 7.007235e-39
0.340376 0.085732 -0.379337 7.007235e-39
0.341357 0.085700 -0.379199 6.915039e-39
0.342332 0.085668 -0.379056 6.822845e-39
0.343223 0.085615 -0.378819 7.007235e-39
0.343571 0.085427 -0.377988 7.099431e-39
0.343816 0.085214 -0.377049 7.099431e-39
0.344668 0.085153 -0.376779 7.099431e-39
0.343647 0.084632 -0.374470 7.007235e-39
0.343957 0.084440 -0.373622 6.915039e-39
0.344940 0.084414 -0.373507 7.007235e-39
0.346024 0.084413 -0.373502 7.099431e-39
0.346980 0.084381 -0.373360 7.099431e-39
0.348034 0.084372 -0.373324 7.007235e-39
0.328565 0.101459 -0.454789 4.978561e-39
0.328515 0.101036 -0.452894 5.439183e-39
0.323912 0.099222 -0.444761 5.531739e-39
0.321805 0.098183 -0.440107 5.532098e-39
0.320147 0.097290 -0.436102 5.625011e-39
0.318439 0.096388 -0.432060 6.270382e-39
0.318160 0.095924 -0.429981 6.361863e-39
0.316745 0.095123 -0.426390 6.453701e-39
0.316220 0.094594 -0.424020 6.545895e-39
0.315570 0.094033 -0.421501 6.546255e-39
0.315155 0.093545 -0.419316 6.453701e-39
0.315092 0.093165 -0.417612 6.546255e-39
0.314968 0.092770 -0.415842 6.638450e-39
0.315021 0.092430 -0.414318 6.546253e-39
0.315044 0.092084 -0.412767 6.638450e-39
0.315003 0.091722 -0.411143 6.546254e-39
0.314588 0.091254 -0.409045 6.269667e-39
0.312918 0.090427 -0.405338 5.900885e-39
0.310718 0.089453 -0.400975 5.716133e-39
0.309208 0.088685 -0.397531 5.255515e-39
0.307698 0.087923 -0.394113 5.071123e-39
0.306694 0.087310 -0.391367 5.071124e-39
0.305921 0.086767 -0.388934 4.978927e-39
0.305525 0.086335 -0.386997 4.886731e-39
0.305702 0.086068 -0.385798 4.886731e-39
0.305586 0.085720 -0.384239 4.610144e-39
0.305657 0.085427 -0.382925 4.794536e-39
0.305835 0.085165 -0.381754 4.794536e-39
0.306062 0.084920 -0.380653 4.702340e-39
0.306464 0.084724 -0.379776 4.702340e-39
0.307042 0.084579 -0.379124 4.702340e-39
0.307734 0.084465 -0.378616 4.702340e-39
0.308501 0.084373 -0.378204 4.794536e-39
0.309312 0.084294 -0.377847 4.610144e-39
0.310183 0.084231 -0.377568 4.702340e-39
0.310887 0.084124 -0.377087 4.794534e-39
0.311456 0.083981 -0.376447 4.610144e-39
0.312231 0.083895 -0.376060 4.517949e-39
0.313048 0.083820 -0.375725 4.517949e-39
0.313895 0.083754 -0.375428 4.610143e-39
0.314896 0.083730 -0.375318 4.517949e-39
0.316309 0.083814 -0.375697 4.702341e-39
0.317136 0.083743 -0.375380 4.886734e-39
0.318427 0.083795 -0.375612 4.794538e-39
0.319865 0.083885 -0.376016 5.347712e-39
0.324851 0.084041 -0.376716 6.454060e-39
0.326822 0.084266 -0.377725 6.638451e-39
0.328278 0.084358 -0.378135 6.638451e-39
0.329910 0.084494 -0.378742 6.822842e-39
0.331376 0.084586 -0.379157 6.915038e-39
0.332598 0.084616 -0.379291 6.822842e-39
0.334134 0.084725 -0.379781 7.007234e-39
0.335424 0.084771 -0.379988 7.099429e-39
0.336452 0.084752 -0.379899 7.099429e-39
0.337312 0.084690 -0.379621 7.007234e-39
0.338334 0.084669 -0.379527 7.007234e-39
0.339892 0.084781 -0.380033 6.915041e-39
0.341215 0.084835 -0.380272 6.915041e-39
0.342276 0.084823 -0.380220 7.007235e-39
0.343288 0.084799 -0.380114 7.099431e-39
0.344235 0.084760 -0.379937 7.099431e-39
0.345087 0.084697 -0.379655 7.007235e-39
0.345738 0.084586 -0.379157 6.822845e-39
0.346071 0.084398 -0.378313 6.822845e-39
0.346434 0.084218 -0.377507 7.007236e-39
0.347214 0.084140 -0.377160 7.376018e-39
0.348230 0.084120 -0.377070 7.007235e-39
0.349232 0.084097 -0.376966 6.915038e-39
0.348900 0.083754 -0.375426 6.915038e-39
0.349778 0.083702 -0.375194 7.007235e-39
0.350818 0.083689 -0.375137 7.007235e-39
0.351583 0.083611 -0.374787 6.915039e-39
0.353303 0.083760 -0.375455 6.822844e-39
0.354515 0.083788 -0.375580 6.822842e-39
0.330267 0.102303 -0.464641 4.148442e-39
0.329772 0.101732 -0.462050 4.240637e-39
0.329718 0.101302 -0.460097 4.886007e-39
0.329225 0.100741 -0.457548 4.886005e-39
0.329666 0.100469 -0.456314 4.886005e-39
0.330385 0.100284 -0.455472 5.808326e-39
0.317950 0.094983 -0.431397 6.731000e-39
0.317645 0.094518 -0.429285 6.546609e-39
0.316789 0.093894 -0.426450 6.546609e-39
0.316365 0.093402 -0.424215 6.546607e-39
0.315784 0.092867 -0.421788 6.270380e-39
0.315401 0.092395 -0.419643 6.362575e-39
0.315336 0.092019 -0.417936 6.639163e-39
0.315226 0.091633 -0.416183 6.823194e-39
0.315314 0.091308 -0.414703 6.823194e-39
0.315340 0.090967 -0.413154 6.638450e-39
0.315159 0.090568 -0.411346 6.269666e-39
0.314546 0.090050 -0.408991 5.808688e-39
0.312972 0.089261 -0.405409 5.439905e-39
0.311266 0.088441 -0.401682 5.071123e-39
0.309612 0.087641 -0.398051 4.886731e-39
0.308104 0.086889 -0.394634 4.886731e-39
0.306876 0.086221 -0.391599 4.886731e-39
0.306048 0.085669 -0.389096 4.886731e-39
0.305666 0.085247 -0.387176 4.978927e-39
0.305761 0.084960 -0.385872 4.886731e-39
0.305693 0.084630 -0.384373 4.610144e-39
0.305788 0.084347 -0.383088 4.794536e-39
0.305964 0.084089 -0.381915 4.794536e-39
0.306167 0.083839 -0.380784 4.702340e-39
0.306557 0.083643 -0.379891 4.702340e-39
0.307130 0.083498 -0.379232 4.702340e-39
0.307832 0.083389 -0.378737 4.702340e-39
0.308641 0.083309 -0.378376 4.702340e-39
0.309583 0.083266 -0.378179 4.794536e-39
0.310506 0.083218 -0.377961 4.702340e-39
0.311227 0.083116 -0.377500 4.610144e-39
0.311807 0.082978 -0.376871 4.610144e-39
0.312634 0.082906 -0.376544 4.333558e-39
0.313513 0.082848 -0.376282 4.241363e-39
0.314503 0.082820 -0.376155 4.333559e-39
0.315664 0.082837 -0.376232 4.425755e-39
0.317093 0.082924 -0.376629 4.978928e-39
0.318197 0.082926 -0.376635 5.347712e-39
0.319735 0.083040 -0.377155 5.347712e-39
0.321354 0.083175 -0.377766 6.269669e-39
0.322539 0.083197 -0.377866 6.638451e-39
0.324146 0.083327 -0.378456 6.638451e-39
0.325384 0.083361 -0.378613 7.191625e-39
0.326611 0.083393 -0.378757 7.191625e-39
0.328086 0.083488 -0.379186 7.007234e-39
0.329285 0.083511 -0.379294 6.915038e-39
0.330740 0.083600 -0.379696 7.007234e-39
0.332128 0.083671 -0.380018 7.099429e-39
0.333332 0.083695 -0.380129 7.007234e-39
0.334648 0.083747 -0.380365 7.099429e-39
0.336044 0.083819 -0.380691 7.007234e-39
0.337228 0.083837 -0.380775 6.822844e-39
0.338254 0.083817 -0.380681 7.099429e-39
0.339598 0.083875 -0.380944 7.099429e-39
0.340794 0.083896 -0.381041 6.915041e-39
0.342112 0.083947 -0.381272 7.007236e-39
0.343379 0.083985 -0.381446 7.099431e-39
0.344157 0.083904 -0.381076 7.007236e-39
0.345126 0.083869 -0.380920 7.007235e-39
0.346223 0.083866 -0.380906 7.007236e-39
0.347211 0.083837 -0.380772 7.099432e-39
0.347804 0.083712 -0.380207 7.007235e-39
0.348306 0.083567 -0.379547 7.007236e-39
0.349110 0.083495 -0.379219 7.191628e-39
0.350092 0.083466 -0.379086 6.822845e-39
0.351077 0.083437 -0.378957 6.822845e-39
0.351088 0.083178 -0.377781 6.915039e-39
0.351682 0.083058 -0.377236 6.915041e-39
0.352184 0.082918 -0.376598 6.822845e-39
0.352454 0.082724 -0.375716 6.730648e-39
0.353688 0.082756 -0.375864 6.638454e-39
0.355749 0.082981 -0.376887 6.546255e-39
0.358023 0.083255 -0.378129 6.269667e-39
0.359083 0.083245 -0.378085 6.085277e-39
0.360043 0.083212 -0.377936 5.993082e-39
0.361740 0.083350 -0.378560 5.808690e-39
0.363223 0.083437 -0.378956 5.808690e-39
0.364422 0.083459 -0.379055 5.808689e-39
0.365528 0.083459 -0.379056 5.716496e-39
0.366684 0.083471 -0.379109 5.716856e-39
0.367788 0.083470 -0.379108 5.809052e-39
0.368869 0.083465 -0.379084 5.809052e-39
0.333979 0.103354 -0.475714 2.028301e-39
0.334987 0.102392 -0.471283 5.346984e-39
0.333941 0.101655 -0.467892 5.346984e-39
0.332582 0.100830 -0.464093 5.070758e-39
0.332241 0.100318 -0.461739 5.255150e-39
0.333480 0.100286 -0.461592 5.624651e-39
0.315700 0.092696 -0.426656 6.638804e-39
0.316824 0.092661 -0.426497 6.454413e-39
0.316574 0.092226 -0.424494 6.454413e-39
0.316117 0.091735 -0.422232 6.639163e-39
0.315697 0.091258 -0.420037 6.362217e-39
0.315580 0.090872 -0.418259 6.085629e-39
0.315504 0.090500 -0.416550 5.993433e-39
0.315623 0.090187 -0.415110 5.993435e-39
0.315639 0.089848 -0.413546 5.439905e-39
0.315383 0.089433 -0.411639 5.071123e-39
0.314591 0.088871 -0.409050 5.071123e-39
0.313077 0.088109 -0.405545 5.255514e-39
0.311469 0.087327 -0.401945 4.886731e-39
0.309888 0.086558 -0.398406 4.978927e-39
0.308365 0.085811 -0.394968 4.978927e-39
0.306989 0.085111 -0.391743 4.886731e-39
0.306183 0.084573 -0.389268 4.886731e-39
0.305843 0.084167 -0.387400 4.886731e-39
0.305785 0.083842 -0.385902 4.886731e-39
0.305765 0.083529 -0.384464 4.794536e-39
0.305890 0.083258 -0.383216 4.794536e-39
0.306093 0.083010 -0.382076 4.794536e-39
0.306323 0.082772 -0.380978 4.794536e-39
0.306664 0.082565 -0.380024 4.886731e-39
0.307204 0.082412 -0.379323 4.794536e-39
0.307909 0.082306 -0.378831 4.702340e-39
0.308772 0.082241 -0.378536 4.702340e-39
0.309839 0.082232 -0.378492 4.517949e-39
0.310864 0.082211 -0.378397 4.517947e-39
0.311682 0.082136 -0.378052 4.517950e-39
0.312371 0.082028 -0.377553 4.517954e-39
0.313369 0.082001 -0.377430 4.517953e-39
0.314327 0.081964 -0.377260 4.610149e-39
0.315444 0.081969 -0.377280 4.794540e-39
0.316697 0.082009 -0.377464 5.255518e-39
0.317975 0.082055 -0.377676 5.716496e-39
0.319191 0.082084 -0.377812 6.085277e-39
0.320609 0.082165 -0.378186 6.269669e-39
0.322028 0.082246 -0.378559 6.730647e-39
0.323171 0.082256 -0.378605 6.822842e-39
0.324882 0.082411 -0.379315 6.915038e-39
0.326044 0.082425 -0.379381 7.007234e-39
0.327152 0.082426 -0.379384 6.915038e-39
0.328585 0.082508 -0.379763 6.915038e-39
0.329948 0.082572 -0.380058 7.007234e-39
0.331320 0.082638 -0.380362 7.099429e-39
0.332613 0.082684 -0.380574 7.099429e-39
0.333822 0.082709 -0.380686 7.007234e-39
0.335173 0.082768 -0.380961 6.915038e-39
0.336593 0.082845 -0.381313 6.915038e-39
0.337889 0.082890 -0.381522 7.007234e-39
0.339077 0.082909 -0.381608 7.099428e-39
0.340413 0.082963 -0.381858 7.007234e-39
0.341503 0.082958 -0.381834 6.915039e-39
0.342880 0.083022 -0.382128 7.007235e-39
0.344268 0.083088 -0.382433 6.915041e-39
0.344932 0.082980 -0.381934 6.915038e-39
0.345780 0.082916 -0.381641 7.007234e-39
0.346846 0.082905 -0.381591 7.007234e-39
0.348059 0.082929 -0.381701 6.915038e-39
0.349321 0.082965 -0.381865 7.099428e-39
0.349591 0.082765 -0.380948 7.099428e-39
0.350295 0.082669 -0.380506 7.007234e-39
0.351236 0.082630 -0.380325 7.099429e-39
0.352237 0.082605 -0.380209 7.007232e-39
0.353095 0.082547 -0.379940 6.730647e-39
0.353877 0.082471 -0.379591 6.822842e-39
0.354277 0.082307 -0.378836 6.638451e-39
0.354321 0.082061 -0.377706 6.454060e-39
0.355092 0.081985 -0.377356 6.361863e-39
0.356953 0.082160 -0.378163 6.177472e-39
0.358550 0.082274 -0.378686 5.900886e-39
0.359610 0.082264 -0.378639 5.716495e-39
0.360592 0.082236 -0.378512 5.624299e-39
0.362311 0.082376 -0.379157 5.716495e-39
0.363794 0.082462 -0.379552 5.716495e-39
0.364979 0.082480 -0.379634 5.624301e-39
0.366078 0.082478 -0.379626 5.624302e-39
0.367223 0.082487 -0.379666 5.716498e-39
0.368193 0.082457 -0.379526 5.716498e-39
0.369132 0.082419 -0.379354 5.716498e-39
0.336661 0.103216 -0.481533 3.135722e-39
0.337959 0.103183 -0.481383 5.347345e-39
0.337379 0.102581 -0.478570 4.886007e-39
0.337122 0.102081 -0.476238 4.794170e-39
0.338434 0.102058 -0.476131 5.623931e-39
0.338679 0.101715 -0.474530 6.084549e-39
0.338042 0.101111 -0.471713 5.993435e-39
0.337803 0.100630 -0.469470 6.270023e-39
0.339070 0.100600 -0.469330 6.454772e-39
0.316747 0.091039 -0.424726 6.638804e-39
0.316513 0.090618 -0.422762 6.454413e-39
0.315975 0.090113 -0.420407 5.993435e-39
0.315712 0.089690 -0.418433 5.348065e-39
0.315663 0.089331 -0.416759 5.071477e-39
0.315809 0.089030 -0.415354 4.887446e-39
0.315847 0.088701 -0.413818 4.610146e-39
0.315582 0.088290 -0.411899 4.794536e-39
0.314680 0.087704 -0.409165 4.794536e-39
0.313226 0.086969 -0.405737 4.886731e-39
0.311710 0.086222 -0.402255 5.071123e-39
0.310157 0.085472 -0.398752 4.978927e-39
0.308455 0.084685 -0.395083 4.886731e-39
0.307127 0.084007 -0.391920 4.886731e-39
0.306339 0.083481 -0.389465 4.794536e-39
0.305973 0.083074 -0.387565 4.794536e-39
0.305856 0.082736 -0.385991 4.794536e-39
0.305864 0.082436 -0.384588 4.886731e-39
0.305981 0.082166 -0.383330 4.978927e-39
0.306205 0.081927 -0.382215 4.794536e-39
0.306527 0.081716 -0.381231 4.702340e-39
0.306879 0.081514 -0.380291 4.610144e-39
0.307398 0.081359 -0.379564 4.610144e-39
0.308101 0.081252 -0.379067 4.610144e-39
0.308991 0.081196 -0.378805 4.702340e-39
0.310054 0.081185 -0.378754 4.978927e-39
0.311248 0.081209 -0.378864 5.071123e-39
0.312343 0.081207 -0.378854 5.347711e-39
0.313365 0.081185 -0.378754 5.624301e-39
0.314630 0.081227 -0.378949 5.900886e-39
0.315684 0.081214 -0.378889 5.993082e-39
0.316786 0.081214 -0.378886 6.269669e-39
0.317899 0.081216 -0.378897 6.638451e-39
0.318859 0.081179 -0.378726 6.730647e-39
0.320085 0.081210 -0.378870 6.822842e-39
0.321279 0.081233 -0.378977 6.822842e-39
0.322444 0.081248 -0.379048 6.730647e-39
0.323609 0.081263 -0.379118 6.822842e-39
0.325195 0.081384 -0.379681 7.007234e-39
0.326425 0.081415 -0.379825 6.915038e-39
0.327558 0.081421 -0.379855 6.915038e-39
0.328806 0.081456 -0.380018 7.007232e-39
0.330146 0.081514 -0.380286 7.007232e-39
0.331499 0.081574 -0.380567 7.007232e-39
0.332771 0.081614 -0.380754 6.915038e-39
0.333955 0.081632 -0.380838 6.730647e-39
0.335296 0.081688 -0.381102 6.915037e-39
0.336700 0.081760 -0.381434 7.099428e-39
0.338121 0.081834 -0.381783 7.191625e-39
0.339476 0.081893 -0.382056 7.007234e-39
0.340537 0.081881 -0.381998 6.915038e-39
0.341931 0.081948 -0.382311 6.822844e-39
0.343257 0.081998 -0.382548 6.915039e-39
0.344458 0.082019 -0.382644 6.822844e-39
0.345550 0.082013 -0.382619 6.822842e-39
0.346040 0.081866 -0.381929 6.915038e-39
0.346947 0.081817 -0.381702 6.822844e-39
0.348263 0.081865 -0.381926 6.822842e-39
0.349878 0.081983 -0.382475 6.822844e-39
0.350752 0.081926 -0.382212 6.730648e-39
0.351671 0.081881 -0.382001 6.546257e-39
0.352635 0.081847 -0.381840 6.361866e-39
0.353635 0.081820 -0.381718 6.361864e-39
0.354546 0.081774 -0.381501 6.269669e-39
0.355401 0.081715 -0.381225 5.993082e-39
0.356266 0.081659 -0.380963 5.900886e-39
0.357170 0.081612 -0.380744 5.993082e-39
0.358073 0.081565 -0.380524 6.085277e-39
0.359086 0.081543 -0.380422 5.993082e-39
0.360134 0.081529 -0.380358 5.901246e-39
0.361189 0.081517 -0.380303 5.808690e-39
0.362238 0.081504 -0.380240 5.808690e-39
0.364016 0.081654 -0.380941 5.900886e-39
0.365496 0.081737 -0.381328 5.808690e-39
0.366636 0.081743 -0.381358 5.716496e-39
0.367701 0.081733 -0.381310 5.716496e-39
0.368813 0.081733 -0.381311 5.716496e-39
0.369404 0.081618 -0.380774 5.716496e-39
0.369937 0.081491 -0.380182 5.716496e-39
0.341675 0.103761 -0.490750 4.702689e-39
0.340425 0.102951 -0.486917 4.702689e-39
0.339491 0.102242 -0.483566 4.793810e-39
0.339287 0.101758 -0.481277 5.162232e-39
0.340298 0.101642 -0.480725 5.623929e-39
0.340575 0.101307 -0.479144 5.994151e-39
0.341001 0.101020 -0.477784 6.362575e-39
0.341062 0.100627 -0.475926 6.546606e-39
0.339417 0.099736 -0.471713 6.638801e-39
0.340601 0.099680 -0.471450 6.730996e-39
0.316993 0.089871 -0.425056 5.901239e-39
0.316484 0.089378 -0.422723 5.624652e-39
0.315823 0.088845 -0.420204 5.255870e-39
0.315736 0.088478 -0.418466 5.348065e-39
0.315737 0.088138 -0.416857 4.979281e-39
0.315916 0.087850 -0.415496 4.610500e-39
0.315987 0.087534 -0.414001 4.886733e-39
0.315766 0.087140 -0.412139 5.071123e-39
0.314945 0.086584 -0.409509 4.978927e-39
0.313505 0.085863 -0.406099 4.886731e-39
0.312028 0.085137 -0.402666 4.886731e-39
0.310498 0.084402 -0.399190 4.886731e-39
0.308684 0.083596 -0.395376 4.886731e-39
0.307322 0.082918 -0.392168 4.886731e-39
0.306418 0.082367 -0.389566 4.978927e-39
0.305952 0.081939 -0.387539 4.886731e-39
0.305886 0.081620 -0.386030 4.886731e-39
0.305969 0.081343 -0.384720 4.886731e-39
0.306098 0.081080 -0.383477 4.886731e-39
0.306317 0.080843 -0.382356 4.702340e-39
0.306655 0.080639 -0.381390 4.517949e-39
0.307052 0.080452 -0.380505 4.425753e-39
0.307643 0.080317 -0.379866 4.241362e-39
0.308435 0.080234 -0.379478 4.425753e-39
0.309413 0.080202 -0.379322 4.702340e-39
0.310471 0.080189 -0.379264 5.255514e-39
0.311680 0.080216 -0.379391 5.255873e-39
0.312885 0.080241 -0.379510 5.900885e-39
0.314035 0.080253 -0.379564 6.730647e-39
0.315123 0.080248 -0.379542 6.730647e-39
0.316182 0.080236 -0.379486 6.915038e-39
0.317260 0.080229 -0.379452 6.915038e-39
0.318320 0.080218 -0.379398 6.822841e-39
0.319275 0.080180 -0.379220 6.915038e-39
0.320544 0.080221 -0.379414 6.915038e-39
0.321773 0.080252 -0.379559 6.915037e-39
0.322966 0.080273 -0.379662 6.822842e-39
0.324163 0.080296 -0.379767 6.915039e-39
0.325567 0.080369 -0.380115 7.007235e-39
0.326898 0.080424 -0.380376 7.007235e-39
0.328168 0.080464 -0.380563 7.007235e-39
0.329397 0.080493 -0.380701 7.007235e-39
0.330746 0.080552 -0.380977 7.007234e-39
0.332096 0.080610 -0.381252 7.007235e-39
0.333292 0.080630 -0.381349 6.915041e-39
0.334330 0.080613 -0.381266 6.822845e-39
0.335662 0.080666 -0.381517 7.007235e-39
0.337264 0.080783 -0.382073 7.007236e-39
0.338672 0.080854 -0.382406 7.007236e-39
0.339815 0.080860 -0.382438 7.099431e-39
0.340925 0.080859 -0.382433 7.007235e-39
0.342330 0.080928 -0.382758 6.915039e-39
0.343679 0.080983 -0.383018 7.007234e-39
0.344995 0.081030 -0.383240 6.915039e-39
0.346445 0.081108 -0.383609 6.730650e-39
0.347419 0.081075 -0.383451 6.638454e-39
0.348530 0.081073 -0.383443 6.638452e-39
0.349754 0.081098 -0.383560 6.546257e-39
0.351004 0.081128 -0.383705 6.361866e-39
0.351948 0.081088 -0.383515 6.177474e-39
0.353233 0.081127 -0.383698 5.993082e-39
0.354343 0.081125 -0.383689 5.900886e-39
0.354950 0.081008 -0.383137 5.808690e-39
0.356378 0.081079 -0.383472 5.716495e-39
0.357048 0.080978 -0.382992 5.624299e-39
0.357887 0.080915 -0.382696 5.624299e-39
0.359216 0.080963 -0.382924 5.716495e-39
0.360139 0.080920 -0.382719 5.809051e-39
0.360862 0.080832 -0.382304 5.809051e-39
0.361732 0.080777 -0.382046 5.809051e-39
0.362789 0.080765 -0.381987 5.900887e-39
0.363822 0.080747 -0.381903 5.808692e-39
0.365432 0.080857 -0.382424 5.716495e-39
0.366812 0.080916 -0.382700 5.716496e-39
0.367812 0.080891 -0.382581 5.716496e-39
0.368409 0.080777 -0.382043 5.716495e-39
0.369479 0.080767 -0.381998 5.716495e-39
0.370435 0.080733 -0.381837 5.716495e-39
0.371379 0.080697 -0.381663 5.716496e-39
0.346790 0.103863 -0.498097 5.440262e-39
0.344936 0.102877 -0.493368 5.808685e-39
0.343045 0.101889 -0.488628 5.808685e-39
0.342108 0.101190 -0.485278 6.085991e-39
0.343199 0.101095 -0.484822 6.270023e-39
0.342428 0.100455 -0.481751 6.362220e-39
0.342404 0.100038 -0.479750 6.546611e-39
0.342623 0.099695 -0.478105 6.546611e-39
0.341175 0.098871 -0.474156 6.638807e-39
0.342379 0.098820 -0.473910 6.638806e-39
0.316877 0.088600 -0.424901 4.979283e-39
0.316397 0.088122 -0.422606 4.979283e-39
0.315735 0.087597 -0.420087 4.887087e-39
0.315618 0.087226 -0.418309 4.979283e-39
0.315737 0.086923 -0.416857 4.887087e-39
0.315982 0.086657 -0.415581 4.887087e-39
0.316058 0.086347 -0.414094 4.886733e-39
0.315834 0.085958 -0.412228 4.886733e-39
0.315175 0.085453 -0.409809 4.886731e-39
0.313856 0.084774 -0.406553 4.886731e-39
0.312301 0.084037 -0.403019 4.886731e-39
0.310598 0.083266 -0.399319 4.886731e-39
0.308776 0.082469 -0.395495 4.886731e-39
0.307505 0.081824 -0.392402 4.886731e-39
0.306566 0.081272 -0.389754 4.978927e-39
0.306042 0.080833 -0.387652 4.978927e-39
0.306044 0.080537 -0.386230 4.978927e-39
0.306146 0.080268 -0.384942 4.978927e-39
0.306335 0.080025 -0.383774 4.794536e-39
0.306618 0.079807 -0.382731 4.886731e-39
0.306998 0.079616 -0.381817 4.978927e-39
0.307503 0.079459 -0.381063 5.071123e-39
0.308242 0.079364 -0.380606 5.071123e-39
0.309150 0.079312 -0.380358 5.439905e-39
0.310166 0.079289 -0.380244 5.808688e-39
0.311136 0.079253 -0.380076 6.085275e-39
0.312202 0.079243 -0.380025 6.269666e-39
0.313323 0.079246 -0.380042 6.546254e-39
0.314459 0.079254 -0.380076 6.638451e-39
0.315507 0.079239 -0.380005 6.638451e-39
0.316577 0.079229 -0.379960 6.915038e-39
0.317656 0.079222 -0.379927 6.822842e-39
0.318713 0.079210 -0.379867 6.546254e-39
0.319689 0.079177 -0.379711 6.822844e-39
0.320875 0.079197 -0.379805 7.007235e-39
0.322077 0.079220 -0.379918 7.099431e-39
0.323281 0.079244 -0.380032 7.007235e-39
0.324491 0.079269 -0.380152 7.007235e-39
0.325946 0.079354 -0.380558 6.915039e-39
0.327277 0.079408 -0.380816 6.915039e-39
0.328584 0.079456 -0.381045 6.915039e-39
0.329937 0.079514 -0.381326 6.915039e-39
0.331146 0.079537 -0.381437 7.007234e-39
0.332460 0.079586 -0.381671 7.007234e-39
0.333694 0.079615 -0.381810 6.915038e-39
0.334810 0.079616 -0.381813 6.822842e-39
0.336155 0.079671 -0.382078 7.007235e-39
0.337790 0.079794 -0.382669 6.915038e-39
0.339217 0.079867 -0.383021 6.730647e-39
0.340407 0.079885 -0.383104 6.822841e-39
0.341782 0.079945 -0.383394 6.915037e-39
0.343287 0.080036 -0.383828 6.915038e-39
0.344705 0.080105 -0.384162 6.822842e-39
0.346034 0.080154 -0.384395 6.730645e-39
0.347346 0.080198 -0.384607 6.638450e-39
0.348513 0.080209 -0.384659 6.546254e-39
0.349725 0.080230 -0.384759 6.361863e-39
0.350947 0.080253 -0.384869 6.177472e-39
0.352119 0.080265 -0.384925 6.085277e-39
0.353128 0.080239 -0.384802 5.900886e-39
0.354702 0.080341 -0.385293 5.808690e-39
0.355936 0.080367 -0.385414 5.808690e-39
0.356264 0.080188 -0.384556 5.716495e-39
0.358015 0.080329 -0.385234 5.624301e-39
0.358524 0.080192 -0.384576 5.716495e-39
0.359338 0.080123 -0.384248 5.716495e-39
0.360985 0.080241 -0.384810 5.716496e-39
0.361929 0.080201 -0.384622 5.716495e-39
0.362814 0.080149 -0.384372 5.716496e-39
0.363499 0.080053 -0.383913 5.716496e-39
0.364094 0.079938 -0.383361 5.716495e-39
0.365113 0.079917 -0.383258 5.716495e-39
0.366855 0.080053 -0.383912 5.716496e-39
0.368272 0.080118 -0.384223 5.716496e-39
0.369160 0.080068 -0.383983 5.716496e-39
0.369467 0.079892 -0.383140 5.716496e-39
0.370505 0.079876 -0.383060 5.716496e-39
0.371557 0.079862 -0.382993 5.716496e-39
0.372614 0.079849 -0.382933 5.716496e-39
0.344569 0.104377 -0.507656 4.333909e-39
0.347602 0.104846 -0.509934 4.794890e-39
0.348578 0.104693 -0.509190 4.979280e-39
0.348269 0.104156 -0.506581 5.440258e-39
0.348130 0.103675 -0.504242 5.255866e-39
0.348855 0.103455 -0.503169 5.624649e-39
0.350163 0.103408 -0.502942 6.085628e-39
0.348752 0.102562 -0.498827 6.362215e-39
0.346455 0.101463 -0.493484 6.177823e-39
0.344538 0.100485 -0.488726 6.454769e-39
0.345402 0.100322 -0.487935 6.454410e-39
0.344014 0.099510 -0.483982 6.362213e-39
0.343587 0.098980 -0.481407 6.270019e-39
0.343863 0.098657 -0.479835 6.546604e-39
0.342337 0.097821 -0.475771 6.730996e-39
0.343470 0.097749 -0.475421 6.638800e-39
0.316728 0.087321 -0.424701 4.887087e-39
0.316301 0.086864 -0.422478 4.794892e-39
0.315640 0.086346 -0.419961 4.887087e-39
0.315453 0.085962 -0.418091 4.887087e-39
0.315644 0.085683 -0.416734 4.887446e-39
0.315971 0.085443 -0.415567 4.887089e-39
0.316088 0.085148 -0.414134 4.886733e-39
0.315883 0.084770 -0.412291 4.886731e-39
0.315342 0.084304 -0.410026 4.886731e-39
0.314135 0.083664 -0.406915 4.886731e-39
0.312538 0.082926 -0.403324 4.886731e-39
0.310714 0.082133 -0.399468 5.071123e-39
0.308906 0.081350 -0.395661 4.978927e-39
0.307730 0.080739 -0.392690 4.886731e-39
0.306775 0.080191 -0.390021 4.794536e-39
0.306212 0.079748 -0.387868 4.517949e-39
0.306280 0.079472 -0.386526 4.794536e-39
0.306372 0.079205 -0.385227 5.071121e-39
0.306701 0.079000 -0.384232 5.071123e-39
0.307132 0.078824 -0.383373 5.624296e-39
0.307569 0.078650 -0.382527 5.993079e-39
0.308203 0.078527 -0.381931 6.177470e-39
0.309026 0.078454 -0.381573 6.454057e-39
0.309947 0.078406 -0.381339 6.730643e-39
0.310902 0.078366 -0.381147 6.915034e-39
0.311773 0.078306 -0.380854 6.915034e-39
0.312670 0.078253 -0.380595 7.007229e-39
0.313699 0.078233 -0.380499 6.915037e-39
0.314838 0.078240 -0.380534 6.822842e-39
0.315894 0.078227 -0.380471 6.822842e-39
0.316942 0.078212 -0.380398 7.007234e-39
0.318007 0.078202 -0.380346 6.915038e-39
0.319065 0.078189 -0.380286 6.638451e-39
0.320061 0.078162 -0.380153 7.007232e-39
0.321174 0.078163 -0.380160 7.007234e-39
0.322316 0.078171 -0.380200 6.915038e-39
0.323507 0.078192 -0.380298 6.822842e-39
0.324778 0.078231 -0.380489 6.822842e-39
0.326264 0.078321 -0.380929 6.915037e-39
0.327554 0.078364 -0.381138 6.822844e-39
0.328861 0.078411 -0.381365 6.822844e-39
0.330320 0.078494 -0.381768 6.915039e-39
0.331416 0.078490 -0.381749 7.007234e-39
0.332705 0.078531 -0.381951 7.007235e-39
0.333986 0.078571 -0.382144 7.007234e-39
0.335216 0.078598 -0.382276 6.915038e-39
0.336739 0.078694 -0.382741 6.915039e-39
0.338348 0.078809 -0.383301 6.822844e-39
0.339834 0.078895 -0.383717 6.730648e-39
0.341273 0.078969 -0.384079 6.638452e-39
0.343142 0.079142 -0.384920 6.638451e-39
0.344831 0.079272 -0.385554 6.454058e-39
0.346199 0.079328 -0.385827 5.993082e-39
0.347442 0.079356 -0.385959 5.993082e-39
0.349001 0.079454 -0.386440 5.993082e-39
0.349916 0.079406 -0.386206 5.900886e-39
0.351036 0.079405 -0.386201 5.808690e-39
0.352287 0.079434 -0.386339 5.900886e-39
0.353493 0.079452 -0.386426 6.085277e-39
0.354534 0.079433 -0.386334 5.900886e-39
0.356383 0.079594 -0.387120 5.808690e-39
0.357729 0.079643 -0.387356 5.808692e-39
0.357748 0.079396 -0.386157 5.716495e-39
0.359818 0.079605 -0.387174 5.624301e-39
0.360155 0.079431 -0.386325 5.716496e-39
0.360933 0.079354 -0.385954 5.716496e-39
0.362888 0.079536 -0.386839 5.716496e-39
0.363818 0.079493 -0.386629 5.808690e-39
0.364892 0.079482 -0.386574 5.624301e-39
0.365396 0.079347 -0.385916 5.624299e-39
0.365497 0.079125 -0.384839 5.716496e-39
0.366494 0.079098 -0.384708 5.716496e-39
0.368473 0.079283 -0.385605 5.716496e-39
0.369979 0.079365 -0.386005 5.716496e-39
0.370759 0.079291 -0.385646 5.716496e-39
0.370799 0.079060 -0.384522 5.716496e-39
0.371624 0.078997 -0.384217 5.716496e-39
0.372602 0.078967 -0.384070 5.716496e-39
0.373665 0.078955 -0.384013 5.716496e-39
0.352518 0.105725 -0.521605 5.348058e-39
0.352298 0.105206 -0.519042 5.716845e-39
0.353001 0.104965 -0.517855 5.716847e-39
0.352562 0.104388 -0.515010 5.716845e-39
0.352024 0.103787 -0.512043 5.532455e-39
0.351405 0.103168 -0.508986 5.809044e-39
0.350968 0.102606 -0.506216 5.993435e-39
0.352229 0.102544 -0.505908 6.177826e-39
0.350999 0.101760 -0.502041 6.362216e-39
0.348463 0.100605 -0.496345 6.362217e-39
0.345936 0.099463 -0.490709 6.454413e-39
0.346645 0.099256 -0.489690 6.270022e-39
0.345325 0.098473 -0.485826 6.177827e-39
0.344883 0.097946 -0.483223 6.362219e-39
0.345590 0.097747 -0.482245 5.993431e-39
0.316679 0.086070 -0.424635 4.979283e-39
0.316195 0.085604 -0.422337 4.887087e-39
0.315490 0.085082 -0.419761 4.887087e-39
0.315297 0.084702 -0.417884 4.887087e-39
0.315456 0.084418 -0.416486 4.887087e-39
0.315867 0.084204 -0.415430 4.887089e-39
0.316090 0.083942 -0.414137 4.886733e-39
0.315970 0.083591 -0.412405 4.978927e-39
0.315432 0.083133 -0.410142 4.886731e-39
0.314275 0.082515 -0.407096 4.978927e-39
0.312775 0.081813 -0.403630 5.071123e-39
0.311057 0.081058 -0.399909 4.610144e-39
0.309281 0.080295 -0.396141 4.610144e-39
0.308166 0.079708 -0.393245 4.702339e-39
0.307254 0.079178 -0.390629 4.610143e-39
0.306700 0.078743 -0.388486 4.333556e-39
0.306723 0.078459 -0.387087 4.702340e-39
0.306764 0.078182 -0.385720 5.163318e-39
0.307221 0.078013 -0.384884 5.624295e-39
0.307804 0.077877 -0.384212 6.269666e-39
0.308295 0.077718 -0.383430 6.546254e-39
0.309042 0.077625 -0.382971 6.822840e-39
0.309817 0.077540 -0.382550 7.007232e-39
0.310610 0.077460 -0.382154 7.099428e-39
0.311413 0.077383 -0.381774 7.191623e-39
0.312223 0.077308 -0.381404 7.191623e-39
0.313014 0.077228 -0.381014 7.007232e-39
0.314033 0.077206 -0.380903 6.915038e-39
0.315250 0.077232 -0.381032 7.007235e-39
0.316308 0.077220 -0.380970 7.099432e-39
0.317295 0.077190 -0.380822 6.915041e-39
0.318324 0.077170 -0.380726 6.822844e-39
0.319374 0.077156 -0.380655 6.822844e-39
0.320361 0.077126 -0.380509 6.822844e-39
0.321480 0.077129 -0.380522 6.822844e-39
0.322570 0.077124 -0.380499 6.822844e-39
0.323733 0.077137 -0.380564 6.915039e-39
0.325116 0.077202 -0.380884 7.007235e-39
0.326513 0.077270 -0.381219 7.007235e-39
0.327788 0.077309 -0.381410 6.915038e-39
0.329103 0.077357 -0.381647 7.007235e-39
0.330559 0.077437 -0.382044 7.007235e-39
0.331681 0.077439 -0.382054 7.007234e-39
0.332981 0.077483 -0.382269 6.915039e-39
0.334268 0.077523 -0.382467 6.822844e-39
0.335541 0.077560 -0.382647 6.822844e-39
0.337384 0.077727 -0.383475 6.730648e-39
0.338978 0.077837 -0.384015 6.546257e-39
0.340598 0.077951 -0.384580 6.361864e-39
0.342442 0.078116 -0.385395 6.177473e-39
0.344895 0.078419 -0.386887 5.993082e-39
0.346803 0.078596 -0.387760 5.900886e-39
0.347972 0.078605 -0.387803 5.900886e-39
0.349082 0.078600 -0.387781 5.808690e-39
0.351576 0.078906 -0.389291 5.808690e-39
0.351882 0.078721 -0.388377 5.808690e-39
0.352753 0.078663 -0.388089 5.809051e-39
0.354059 0.078702 -0.388281 5.809051e-39
0.355381 0.078744 -0.388490 5.809051e-39
0.356344 0.078707 -0.388306 5.716855e-39
0.358411 0.078912 -0.389322 5.716495e-39
0.359840 0.078977 -0.389641 5.716496e-39
0.359534 0.078662 -0.388085 5.624301e-39
0.361920 0.078936 -0.389436 5.716495e-39
0.362104 0.078729 -0.388416 5.808690e-39
0.362847 0.078645 -0.388000 5.716496e-39
0.365077 0.078882 -0.389172 5.808690e-39
0.365953 0.078827 -0.388898 5.716496e-39
0.367012 0.078811 -0.388819 5.716495e-39
0.367379 0.078647 -0.388010 5.716495e-39
0.367256 0.078379 -0.386690 5.716496e-39
0.368216 0.078344 -0.386515 5.716496e-39
0.370351 0.078558 -0.387571 5.716496e-39
0.371908 0.078648 -0.388017 5.716496e-39
0.372583 0.078552 -0.387544 5.716496e-39
0.372368 0.078269 -0.386149 5.808690e-39
0.372757 0.078115 -0.385388 5.716496e-39
0.373568 0.078050 -0.385067 5.716496e-39
0.374636 0.078039 -0.385011 5.716496e-39
0.351739 0.104880 -0.524980 4.887086e-39
0.352459 0.104639 -0.523777 5.809041e-39
0.353857 0.104601 -0.523587 5.440258e-39
0.354777 0.104423 -0.522695 5.809044e-39
0.354619 0.103930 -0.520228 6.085630e-39
0.354534 0.103463 -0.517889 6.270022e-39
0.353883 0.102836 -0.514748 6.270022e-39
0.353363 0.102251 -0.511822 6.270022e-39
0.353245 0.101787 -0.509500 6.270022e-39
0.353029 0.101299 -0.507057 6.270020e-39
0.351681 0.100492 -0.503016 6.362215e-39
0.349582 0.099478 -0.497940 6.454412e-39
0.347370 0.098439 -0.492744 6.546606e-39
0.346805 0.097875 -0.489916 6.270020e-39
0.346182 0.097298 -0.487032 6.085629e-39
0.345621 0.096744 -0.484257 5.993432e-39
0.345590 0.096342 -0.482245 5.532455e-39
0.316241 0.084716 -0.424048 4.887087e-39
0.315859 0.084284 -0.421888 4.979281e-39
0.315252 0.083796 -0.419444 4.887446e-39
0.315097 0.083431 -0.417618 4.794892e-39
0.315234 0.083146 -0.416193 4.887445e-39
0.315678 0.082944 -0.415182 4.979283e-39
0.316031 0.082720 -0.414060 4.886733e-39
0.316072 0.082416 -0.412538 4.794536e-39
0.315469 0.081947 -0.410190 4.978926e-39
0.314387 0.081358 -0.407241 4.978927e-39
0.313228 0.080753 -0.404215 5.071121e-39
0.312005 0.080137 -0.401128 5.071123e-39
0.310605 0.079479 -0.397838 5.347708e-39
0.309762 0.078969 -0.395283 5.624296e-39
0.309494 0.078608 -0.393477 5.900887e-39
0.309293 0.078267 -0.391770 6.177474e-39
0.308522 0.077785 -0.389357 6.269670e-39
0.308244 0.077430 -0.387580 6.361866e-39
0.308066 0.077103 -0.385942 6.546257e-39
0.308160 0.076846 -0.384656 6.361864e-39
0.308649 0.076689 -0.383870 6.546257e-39
0.309384 0.076594 -0.383395 6.822844e-39
0.310135 0.076504 -0.382943 6.822844e-39
0.310914 0.076421 -0.382528 6.822844e-39
0.311721 0.076346 -0.382152 7.007234e-39
0.312534 0.076272 -0.381784 7.099431e-39
0.313336 0.076197 -0.381406 6.915038e-39
0.314284 0.076157 -0.381208 6.915039e-39
0.315377 0.076153 -0.381186 6.915041e-39
0.316443 0.076142 -0.381132 7.007235e-39
0.317432 0.076113 -0.380986 6.822845e-39
0.318549 0.076114 -0.380995 6.822844e-39
0.319680 0.076119 -0.381019 6.915039e-39
0.320518 0.076055 -0.380696 7.007235e-39
0.321641 0.076058 -0.380713 7.007235e-39
0.322833 0.076077 -0.380809 6.915041e-39
0.324072 0.076108 -0.380961 6.638454e-39
0.325353 0.076148 -0.381162 7.007235e-39
0.326937 0.076258 -0.381714 6.915038e-39
0.328405 0.076341 -0.382129 6.638450e-39
0.329809 0.076408 -0.382465 6.730645e-39
0.331186 0.076469 -0.382769 6.638451e-39
0.332485 0.076511 -0.382980 6.638451e-39
0.333868 0.076572 -0.383287 6.454060e-39
0.335210 0.076624 -0.383545 6.454060e-39
0.336500 0.076663 -0.383741 6.454060e-39
0.338061 0.076764 -0.384245 6.454058e-39
0.339669 0.076874 -0.384798 6.177473e-39
0.341696 0.077078 -0.385820 5.993082e-39
0.344066 0.077359 -0.387222 5.900886e-39
0.346151 0.077573 -0.388295 5.900886e-39
0.348038 0.077742 -0.389141 5.900886e-39
0.349342 0.077780 -0.389329 5.993082e-39
0.350608 0.077809 -0.389476 5.716495e-39
0.353077 0.078104 -0.390953 5.716495e-39
0.353698 0.077990 -0.390381 5.716495e-39
0.354748 0.077970 -0.390285 5.716495e-39
0.356353 0.078073 -0.390798 5.716495e-39
0.358448 0.078282 -0.391843 5.716495e-39
0.358791 0.078108 -0.390973 5.716496e-39
0.360403 0.078210 -0.391486 5.716496e-39
0.361765 0.078258 -0.391726 5.716496e-39
0.361853 0.078031 -0.390589 5.808690e-39
0.363747 0.078193 -0.391401 5.808690e-39
0.364127 0.078031 -0.390586 5.716496e-39
0.364949 0.077963 -0.390248 5.716495e-39
0.366858 0.078127 -0.391071 5.716495e-39
0.367790 0.078083 -0.390850 5.716496e-39
0.368815 0.078059 -0.390729 5.716495e-39
0.369323 0.077926 -0.390064 5.716495e-39
0.369468 0.077718 -0.389019 5.716496e-39
0.370384 0.077672 -0.388792 5.808690e-39
0.372152 0.077805 -0.389455 5.808690e-39
0.373452 0.077839 -0.389628 5.808690e-39
0.374117 0.077741 -0.389139 5.716495e-39
0.374253 0.077535 -0.388103 5.624299e-39
0.374505 0.077353 -0.387196 5.716496e-39
0.375175 0.077259 -0.386723 5.716496e-39
0.376156 0.077229 -0.386573 5.716496e-39
0.352752 0.104100 -0.528792 6.085628e-39
0.353444 0.103851 -0.527524 5.901236e-39
0.353891 0.103532 -0.525905 5.440258e-39
0.354766 0.103340 -0.524932 5.716845e-39
0.355476 0.103103 -0.523725 5.993431e-39
0.355577 0.102691 -0.521633 6.362213e-39
0.355587 0.102257 -0.519428 6.454410e-39
0.354831 0.101607 -0.516127 6.362215e-39
0.354160 0.100987 -0.512976 6.454409e-39
0.353988 0.100513 -0.510572 6.362215e-39
0.354215 0.100157 -0.508761 6.270019e-39
0.352260 0.099189 -0.503844 6.177823e-39
0.350263 0.098217 -0.498909 6.085629e-39
0.348897 0.097430 -0.494910 6.085628e-39
0.348243 0.096847 -0.491948 5.809042e-39
0.347772 0.096320 -0.489268 5.532455e-39
0.347258 0.095784 -0.486551 5.440260e-39
0.347182 0.095374 -0.484466 5.255870e-39
0.315627 0.083318 -0.423224 5.071479e-39
0.315801 0.083039 -0.421810 5.071479e-39
0.315586 0.082661 -0.419888 5.071479e-39
0.315360 0.082283 -0.417968 4.886729e-39
0.315378 0.081971 -0.416383 4.886727e-39
0.315606 0.081716 -0.415087 4.794893e-39
0.315899 0.081479 -0.413886 4.702340e-39
0.316044 0.081207 -0.412502 4.425753e-39
0.315479 0.080755 -0.410204 4.702341e-39
0.314574 0.080219 -0.407484 4.886734e-39
0.313965 0.079762 -0.405165 5.255515e-39
0.313413 0.079324 -0.402937 5.808689e-39
0.312220 0.078727 -0.399906 6.085276e-39
0.311200 0.078178 -0.397117 6.546255e-39
0.310742 0.077774 -0.395064 7.099429e-39
0.310431 0.077409 -0.393212 7.099429e-39
0.309706 0.076944 -0.390850 7.191625e-39
0.309119 0.076517 -0.388681 7.191625e-39
0.308788 0.076156 -0.386847 7.099429e-39
0.308737 0.075867 -0.385377 6.915038e-39
0.308990 0.075654 -0.384294 7.007234e-39
0.309670 0.075547 -0.383750 7.099429e-39
0.310404 0.075453 -0.383274 7.007234e-39
0.311175 0.075369 -0.382850 6.822844e-39
0.311977 0.075294 -0.382464 6.915038e-39
0.312796 0.075223 -0.382104 7.007234e-39
0.313619 0.075153 -0.381750 7.007232e-39
0.314532 0.075105 -0.381509 6.915039e-39
0.315560 0.075086 -0.381408 6.822845e-39
0.316692 0.075090 -0.381432 6.822844e-39
0.317607 0.075044 -0.381197 7.007235e-39
0.318693 0.075038 -0.381166 6.915039e-39
0.319864 0.075052 -0.381238 6.915039e-39
0.320820 0.075016 -0.381054 7.007235e-39
0.321957 0.075022 -0.381087 6.915039e-39
0.323092 0.075028 -0.381115 6.822844e-39
0.324307 0.075052 -0.381238 6.822844e-39
0.325720 0.075122 -0.381592 6.638452e-39
0.327254 0.075219 -0.382084 6.546257e-39
0.328749 0.075306 -0.382528 6.638450e-39
0.330209 0.075385 -0.382929 6.454060e-39
0.331636 0.075456 -0.383289 6.361864e-39
0.332973 0.075506 -0.383542 6.269669e-39
0.334403 0.075576 -0.383900 6.177473e-39
0.335800 0.075639 -0.384220 6.177473e-39
